0.0956042 -0.438132 0.162516 
0.0964457 -0.438146 0.16258 
0.0972972 -0.438125 0.162521 
0.0985634 -0.438132 0.162568 
0.0998199 -0.438171 0.162727 
0.100652 -0.438214 0.162897 
0.102398 -0.438884 0.162249 
0.103178 -0.439089 0.162999 
0.18561 -0.44347 0.162333 
0.18474 -0.444352 0.162386 
0.185515 -0.444465 0.16283 
0.163502 -0.445292 0.162013 
0.18467 -0.445309 0.162745 
0.184726 -0.446492 0.162356 
0.18546 -0.448784 0.162923 
0.192321 -0.461363 0.162044 
0.159048 -0.462606 0.16248 
0.192275 -0.462275 0.162254 
0.00600551 -0.463468 0.162098 
0.0997558 -0.463723 0.1621 
0.100577 -0.463792 0.16239 
0.101388 -0.463888 0.162786 
0.191388 -0.463177 0.162402 
0.192294 -0.463095 0.162107 
0.00600534 -0.464731 0.162017 
0.0984759 -0.464606 0.162187 
0.0997222 -0.464667 0.162451 
0.100547 -0.464723 0.16269 
0.101376 -0.464767 0.162882 
0.102219 -0.464772 0.162915 
0.157395 -0.464231 0.16208 
0.158241 -0.464232 0.162109 
0.159483 -0.464277 0.162326 
0.189663 -0.464491 0.162453 
0.190488 -0.464943 0.162578 
0.192221 -0.464466 0.162446 
0.00600659 -0.465595 0.162055 
0.0972123 -0.465441 0.162081 
0.0984589 -0.465501 0.162346 
0.0997072 -0.465555 0.162583 
0.100535 -0.465602 0.162786 
0.101377 -0.46561 0.162833 
0.102219 -0.465614 0.162863 
0.157348 -0.465158 0.162361 
0.18961 -0.465834 0.162683 
0.191273 -0.465873 0.162903 
0.0972026 -0.466315 0.162155 
0.0984568 -0.466352 0.162327 
0.099705 -0.466406 0.162565 
0.100534 -0.46645 0.162757 
0.101375 -0.466458 0.162803 
0.102214 -0.466473 0.162879 
0.103054 -0.466485 0.162943 
0.157333 -0.46603 0.162423 
0.0963632 -0.467144 0.162033 
0.097202 -0.467161 0.162118 
0.0984528 -0.467208 0.16233 
0.0996973 -0.467273 0.162612 
0.100533 -0.467296 0.162721 
0.101372 -0.467312 0.162802 
0.102202 -0.46735 0.162969 
0.103473 -0.467337 0.16294 
0.0971889 -0.468467 0.162211 
0.0984383 -0.468518 0.162438 
0.0996936 -0.46855 0.16259 
0.10053 -0.468571 0.162693 
0.10137 -0.468162 0.16278 
0.102206 -0.468182 0.162878 
0.103468 -0.468193 0.162946 
0.107283 -0.46899 0.162783 
0.108116 -0.468174 0.162958 
0.101356 -0.469467 0.162875 
0.102198 -0.469471 0.162906 
0.103466 -0.469466 0.16291 
0.104736 -0.469453 0.162879 
0.105578 -0.469037 0.162944 
0.106432 -0.469009 0.162847 
0.0144519 -0.472554 0.16253 
0.187952 -0.472557 0.1621 
0.0144532 -0.473451 0.162708 
0.0144543 -0.474337 0.162842 
0.0144551 -0.475212 0.162931 
0.0144555 -0.47607 0.162953 
0.0152942 -0.476724 0.162114 
0.0152943 -0.477568 0.162075 
0.0144556 -0.478602 0.162838 
0.0144538 -0.479372 0.162485 
0.0144537 -0.480211 0.162428 
0.0144547 -0.481093 0.162549 
0.107281 -0.4825 0.162128 
0.0136139 -0.483687 0.162708 
0.106429 -0.483363 0.162153 
0.108053 -0.483521 0.162868 
0.0127713 -0.484529 0.162662 
0.0119315 -0.486288 0.162902 
0.0979284 -0.487751 0.162533 
0.0987709 -0.487753 0.162557 
0.0996184 -0.487742 0.162521 
0.0110865 -0.48833 0.162516 
0.0975089 -0.488589 0.162459 
0.0987773 -0.488579 0.162439 
0.0996144 -0.488596 0.162527 
0.0085635 -0.489678 0.162839 
0.00940712 -0.489706 0.162961 
0.0102402 -0.489511 0.162088 
0.0962502 -0.489415 0.16232 
0.0975142 -0.489418 0.162354 
0.0987689 -0.489445 0.162498 
0.0995886 -0.489507 0.162791 
0.00855789 -0.490418 0.162337 
0.00940472 -0.490501 0.162706 
0.0962666 -0.490213 0.162076 
0.0975196 -0.490246 0.162247 
0.0987418 -0.490361 0.16278 
0.0954064 -0.491103 0.16223 
0.0979367 -0.491524 0.162249 
0.0987248 -0.491249 0.162942 
0.0974891 -0.492858 0.162494 
0.0987266 -0.492086 0.162879 
0.0970979 -0.49362 0.162078 
0.0970988 -0.494461 0.162028 
0.0974804 -0.49541 0.162477 
0.0974849 -0.496241 0.162385 
0.0975012 -0.497463 0.162129 
0.097926 -0.49872 0.162039 
0.0987087 -0.498032 0.162814 
0.098705 -0.500569 0.16274 
0.0987079 -0.501404 0.162667 
0.0987592 -0.502118 0.162017 
0.0995222 -0.502317 0.162977 
0.159634 -0.504412 0.162287 
0.184308 -0.504183 0.162021 
0.185114 -0.504231 0.162278 
0.102917 -0.505627 0.1626 
0.159666 -0.505211 0.162033 
0.183425 -0.505919 0.162133 
0.184277 -0.505488 0.162142 
0.185441 -0.505188 0.162795 
0.186685 -0.505215 0.162972 
0.0995113 -0.506555 0.162913 
0.10035 -0.506562 0.162964 
0.101197 -0.506552 0.162931 
0.102067 -0.506485 0.162622 
0.159656 -0.506069 0.162062 
0.160488 -0.50693 0.162135 
0.184561 -0.506496 0.162914 
0.100415 -0.507249 0.162169 
0.101268 -0.507226 0.162075 
0.158689 -0.507084 0.162831 
0.15954 -0.507495 0.162784 
0.160422 -0.507865 0.162541 
0.160367 -0.508784 0.162872 
0.184221 -0.508511 0.162337 
0.157758 -0.519852 0.162862 
0.157795 -0.520647 0.162577 
0.157849 -0.52142 0.162172 
0.192642 -0.521211 0.162285 
0.158601 -0.522381 0.162785 
0.158637 -0.523179 0.162509 
0.159503 -0.524836 0.162312 
0.160298 -0.525739 0.162628 
0.16037 -0.526494 0.162115 
0.161091 -0.526645 0.16296 
0.161189 -0.527368 0.162275 
0.160372 -0.528179 0.162037 
0.162018 -0.528228 0.162362 
0.15867 -0.52904 0.162046 
0.159467 -0.529097 0.162386 
0.160293 -0.529119 0.162532 
0.161552 -0.529125 0.162609 
0.162819 -0.529123 0.162636 
0.159401 -0.530021 0.162799 
0.160224 -0.530045 0.162959 
0.161066 -0.530046 0.162993 
0.160235 -0.531717 0.162819 
0.0986243 -0.535283 0.162222 
0.0977735 -0.536144 0.162284 
0.104539 -0.536923 0.162016 
0.105339 -0.536581 0.162503 
0.0842483 -0.537981 0.162873 
0.103688 -0.537782 0.162069 
0.104524 -0.537792 0.162144 
0.105363 -0.537798 0.162192 
0.106205 -0.537798 0.16221 
0.0834473 -0.53872 0.16224 
0.0842586 -0.538795 0.162689 
0.0850876 -0.538825 0.162875 
0.101999 -0.538633 0.162058 
0.102842 -0.538633 0.162069 
0.103675 -0.538648 0.162175 
0.104511 -0.538659 0.162255 
0.105346 -0.538672 0.162349 
0.106192 -0.538664 0.162318 
0.107043 -0.538646 0.162232 
0.083446 -0.539565 0.162227 
0.0842849 -0.539571 0.162274 
0.0855411 -0.539584 0.162374 
0.0867862 -0.539624 0.162627 
0.0876192 -0.539643 0.162751 
0.0884549 -0.539655 0.162834 
0.0892886 -0.539672 0.162945 
0.102828 -0.539502 0.162197 
0.103666 -0.539508 0.162252 
0.104506 -0.53951 0.162279 
0.10533 -0.539544 0.162497 
0.106176 -0.539535 0.162459 
0.107443 -0.539526 0.16243 
0.0834512 -0.540393 0.162118 
0.0842877 -0.540405 0.162201 
0.0855362 -0.540438 0.162411 
0.0867857 -0.540467 0.162602 
0.0876174 -0.540488 0.162743 
0.088454 -0.540498 0.162815 
0.0892898 -0.54051 0.162896 
0.0905487 -0.540514 0.162945 
0.104491 -0.540381 0.162418 
0.105325 -0.540395 0.162518 
0.106561 -0.540442 0.162823 
0.107844 -0.540404 0.162625 
0.0826098 -0.541235 0.162073 
0.0834458 -0.541248 0.162165 
0.0842824 -0.541259 0.162245 
0.0855328 -0.541287 0.162428 
0.0867917 -0.541293 0.162485 
0.0876226 -0.541317 0.162639 
0.0884601 -0.541325 0.162699 
0.089295 -0.541339 0.162793 
0.105312 -0.54126 0.162626 
0.106146 -0.541274 0.162723 
0.107806 -0.541314 0.162994 
0.108725 -0.541173 0.162185 
0.0855355 -0.542122 0.162358 
0.0867926 -0.542132 0.16244 
0.087623 -0.542157 0.162602 
0.106124 -0.542156 0.162934 
0.108671 -0.542112 0.162729 
0.10955 -0.542466 0.16233 
0.110353 -0.542533 0.162748 
0.108643 -0.543003 0.162996 
0.1095 -0.543815 0.162804 
0.11547 -0.543681 0.162131 
0.116264 -0.543759 0.162616 
0.150493 -0.543575 0.162429 
0.117543 -0.544572 0.162447 
0.118829 -0.544534 0.162247 
0.119593 -0.545497 0.162967 
0.0422137 -0.546381 0.162069 
0.0430528 -0.546392 0.162138 
0.110411 -0.546219 0.162004 
0.119645 -0.546258 0.162449 
0.0413659 -0.547273 0.162344 
0.0421996 -0.547319 0.162634 
0.0434523 -0.547368 0.162941 
0.0485041 -0.547304 0.162579 
0.110347 -0.54717 0.162639 
0.0405291 -0.548086 0.16214 
0.041365 -0.54854 0.162336 
0.0421962 -0.548183 0.162744 
0.0430316 -0.548214 0.16294 
0.0505937 -0.548199 0.162899 
0.0531415 -0.548912 0.162099 
0.110329 -0.548462 0.162784 
0.12043 -0.548026 0.162932 
0.042204 -0.54939 0.162369 
0.0430385 -0.549849 0.162596 
0.0522706 -0.549053 0.16297 
0.053539 -0.549856 0.162713 
0.110316 -0.549744 0.162868 
0.121281 -0.549694 0.162802 
0.0447195 -0.550685 0.16255 
0.0455526 -0.550726 0.162814 
0.0539578 -0.550701 0.162719 
0.0548175 -0.550617 0.162198 
0.110338 -0.550549 0.162607 
0.112067 -0.550473 0.162171 
0.0535344 -0.551557 0.162782 
0.0548119 -0.551482 0.162318 
0.110347 -0.551375 0.162485 
0.110367 -0.552184 0.162248 
0.109503 -0.554745 0.162381 
0.108613 -0.556507 0.162826 
0.107773 -0.558187 0.16274 
0.106658 -0.559579 0.162611 
0.0740992 -0.560838 0.162945 
0.106145 -0.560623 0.162042 
0.131442 -0.560546 0.162118 
0.0732912 -0.561595 0.162347 
0.0935099 -0.561498 0.162001 
0.0943463 -0.561507 0.162073 
0.0955896 -0.56154 0.162317 
0.0968418 -0.561556 0.162449 
0.0976488 -0.561615 0.162869 
0.104372 -0.561613 0.162983 
0.105246 -0.561558 0.162631 
0.13051 -0.5615 0.162829 
0.073275 -0.562478 0.162604 
0.0943458 -0.562349 0.162051 
0.0951811 -0.562359 0.162135 
0.0964236 -0.562393 0.162388 
0.0976588 -0.562438 0.162721 
0.098482 -0.562468 0.162942 
0.0993272 -0.562459 0.162897 
0.100161 -0.562471 0.162992 
0.103532 -0.562453 0.162937 
0.104447 -0.562332 0.162129 
0.12886 -0.5623 0.162482 
0.0943466 -0.563188 0.162012 
0.0951782 -0.563205 0.162143 
0.096426 -0.563229 0.16233 
0.0976694 -0.56326 0.162565 
0.0984964 -0.563283 0.162742 
0.0993234 -0.563306 0.162914 
0.100163 -0.563308 0.162942 
0.101428 -0.5633 0.162912 
0.102692 -0.563293 0.16289 
0.122996 -0.563951 0.162058 
0.0951767 -0.564469 0.16212 
0.0964266 -0.564489 0.162281 
0.097669 -0.564521 0.162528 
0.0985113 -0.564518 0.162521 
0.0993496 -0.564522 0.162563 
0.100167 -0.56414 0.162858 
0.10147 -0.564068 0.162391 
0.12256 -0.564812 0.162155 
0.12384 -0.564788 0.162023 
0.121286 -0.56567 0.162212 
0.122557 -0.565658 0.162161 
0.125418 -0.565764 0.162975 
0.121283 -0.566514 0.16221 
0.12256 -0.566496 0.162108 
0.12465 -0.566512 0.162274 
0.120445 -0.567353 0.162142 
0.12128 -0.56736 0.162213 
0.122136 -0.567341 0.162101 
0.123821 -0.567337 0.162114 
0.124569 -0.567456 0.162977 
0.120441 -0.568198 0.162144 
0.121285 -0.568195 0.16214 
0.122133 -0.568186 0.162101 
0.123769 -0.568245 0.162562 
0.119607 -0.569451 0.162017 
0.120445 -0.569034 0.162083 
0.121288 -0.569033 0.162092 
0.122975 -0.569447 0.162071 
0.119601 -0.570721 0.162037 
0.122938 -0.570755 0.16237 
0.119602 -0.571561 0.162005 
0.11875 -0.572415 0.162055 
0.118738 -0.573273 0.162149 
0.117883 -0.574552 0.162223 
0.118735 -0.574118 0.162154 
0.106029 -0.575932 0.162823 
0.115304 -0.576727 0.162654 
0.11617 -0.576695 0.16243 
0.117014 -0.57669 0.162412 
0.0955072 -0.577648 0.162835 
0.0967905 -0.57761 0.162569 
0.116135 -0.577579 0.162743 
0.117039 -0.577499 0.162145 
0.0942534 -0.578478 0.162713 
0.0951384 -0.578405 0.162165 
0.116999 -0.578391 0.162512 
0.0942746 -0.579283 0.16242 
0.117859 -0.579206 0.162313 
0.0917157 -0.580188 0.162857 
0.0925654 -0.580592 0.162729 
0.093408 -0.580167 0.16272 
0.117824 -0.58051 0.162614 
0.0917197 -0.581441 0.162768 
0.0926097 -0.581779 0.16212 
0.123743 -0.58173 0.162393 
0.0908782 -0.582704 0.162742 
0.0917417 -0.582665 0.162444 
0.124584 -0.582569 0.162382 
0.0908889 -0.583526 0.162576 
0.0917711 -0.583457 0.162036 
0.119531 -0.583421 0.162323 
0.1246 -0.583392 0.162216 
0.125382 -0.583457 0.162762 
0.0909 -0.584348 0.162405 
0.119477 -0.584324 0.162805 
0.124618 -0.584214 0.162036 
0.125428 -0.584248 0.162332 
0.0904585 -0.585223 0.162663 
0.126264 -0.585093 0.162371 
0.127505 -0.585954 0.162548 
0.0904638 -0.586474 0.162558 
0.127976 -0.586742 0.1621 
0.128749 -0.586813 0.162706 
0.0858087 -0.587796 0.162969 
0.090462 -0.587737 0.162547 
0.045528 -0.588638 0.162515 
0.0845662 -0.588608 0.16269 
0.0858517 -0.588563 0.162333 
0.0866583 -0.588618 0.162813 
0.0904613 -0.588578 0.162534 
0.0446864 -0.589489 0.162579 
0.0455182 -0.58952 0.162852 
0.0816039 -0.589491 0.162992 
0.0824738 -0.589436 0.162542 
0.0833255 -0.589415 0.162373 
0.0891646 -0.589477 0.162992 
0.0904567 -0.589425 0.162572 
0.0438599 -0.59027 0.16206 
0.0446829 -0.590343 0.162688 
0.0808219 -0.590227 0.162076 
0.0904563 -0.590265 0.162555 
0.043854 -0.591557 0.162259 
0.0446771 -0.591208 0.162888 
0.0891661 -0.591992 0.162903 
0.0905937 -0.591388 0.16256 
0.119475 -0.591468 0.162634 
0.0438535 -0.592818 0.162244 
0.0446743 -0.592059 0.16297 
0.0698563 -0.59243 0.162766 
0.0891629 -0.592836 0.162924 
0.090287 -0.592549 0.162883 
0.0917443 -0.592741 0.162133 
0.043435 -0.593652 0.162172 
0.0698508 -0.5937 0.162836 
0.0891588 -0.593682 0.162958 
0.0904289 -0.593665 0.162828 
0.0917097 -0.593632 0.162564 
0.118619 -0.593586 0.162709 
0.0438552 -0.594489 0.162131 
0.0904314 -0.5945 0.162772 
0.0916906 -0.5945 0.162792 
0.0925627 -0.594452 0.162382 
0.0904317 -0.595339 0.162747 
0.091685 -0.595348 0.162843 
0.0925399 -0.595325 0.162656 
0.0934206 -0.595266 0.162143 
0.0908472 -0.596185 0.162788 
0.0916855 -0.596186 0.162815 
0.0925275 -0.596182 0.162794 
0.0933774 -0.596167 0.162674 
0.0942611 -0.596105 0.162129 
0.0951089 -0.596935 0.162025 
0.116948 -0.596937 0.162501 
0.0908302 -0.597049 0.162991 
0.0916788 -0.597455 0.16287 
0.0925217 -0.59745 0.162837 
0.093351 -0.597044 0.162989 
0.0942149 -0.597009 0.162691 
0.0954878 -0.59783 0.162521 
0.0925071 -0.598729 0.162994 
0.095453 -0.598717 0.162933 
0.0967355 -0.598685 0.162666 
0.097595 -0.598659 0.162439 
0.0984188 -0.598679 0.162644 
0.0992496 -0.598691 0.162763 
0.0967075 -0.599561 0.162987 
0.097559 -0.599545 0.162853 
0.098398 -0.599546 0.162873 
0.0992491 -0.599531 0.162749 
0.100075 -0.599547 0.162921 
0.095025 -0.600406 0.162989 
0.0933882 -0.602029 0.16239 
0.094191 -0.602078 0.162869 
0.0950324 -0.602075 0.162856 
0.0967258 -0.602895 0.162683 
0.099248 -0.603729 0.16266 
0.126151 -0.604531 0.162874 
0.123607 -0.609591 0.16292 
0.123612 -0.610427 0.162858 
0.123616 -0.611263 0.162807 
0.123611 -0.612107 0.162829 
0.124442 -0.613793 0.162895 
0.0673198 -0.615542 0.162574 
0.066496 -0.617193 0.162228 
0.0371146 -0.618958 0.162969 
0.0647874 -0.618927 0.162817 
0.0656464 -0.618471 0.162412 
0.0362808 -0.619775 0.162704 
0.062274 -0.619762 0.162735 
0.0639419 -0.619778 0.162943 
0.0648114 -0.619723 0.1623 
0.0362784 -0.620626 0.162825 
0.0622852 -0.62058 0.16247 
0.0635442 -0.620578 0.162463 
0.0362799 -0.621457 0.162728 
0.0639805 -0.621386 0.162088 
0.0354495 -0.622256 0.162234 
0.0362764 -0.622312 0.162911 
0.0354409 -0.623557 0.16273 
0.036275 -0.623157 0.162975 
0.0346129 -0.624762 0.162052 
0.0354425 -0.624807 0.162611 
0.0362744 -0.624836 0.162978 
0.0375355 -0.625656 0.162741 
0.0782423 -0.632297 0.162092 
0.0748846 -0.633138 0.16206 
0.0757047 -0.633161 0.162389 
0.0765189 -0.63319 0.162807 
0.0734599 -0.634289 0.162485 
0.0740244 -0.635681 0.162378 
0.0941946 -0.641519 0.162072 
0.0941914 -0.642361 0.162102 
0.0950398 -0.642354 0.162001 
0.0950245 -0.643205 0.16218 
0.0954241 -0.644478 0.162418 
0.0975571 -0.644033 0.16203 
0.095826 -0.64575 0.162627 
0.0966915 -0.645731 0.162314 
0.0983863 -0.645719 0.162144 
0.0966602 -0.646591 0.162686 
0.097523 -0.646575 0.16241 
0.0983749 -0.646566 0.162269 
0.0992095 -0.646569 0.162338 
0.0966721 -0.647422 0.16253 
0.0975017 -0.647428 0.162656 
0.0983692 -0.647409 0.162327 
0.0991919 -0.64742 0.162536 
0.10004 -0.647414 0.162442 
0.0975107 -0.648261 0.162537 
0.0983375 -0.648269 0.162696 
0.0991838 -0.648264 0.162621 
0.100451 -0.648258 0.162534 
0.0983468 -0.649102 0.162574 
0.0991853 -0.649521 0.162588 
0.100447 -0.649519 0.162568 
0.101715 -0.649513 0.162477 
0.102579 -0.649498 0.162213 
0.100462 -0.650768 0.162378 
0.101716 -0.650771 0.162462 
0.102563 -0.650766 0.162381 
0.103429 -0.65075 0.162098 
0.101734 -0.651599 0.162237 
0.102571 -0.651601 0.162284 
0.103425 -0.651592 0.162134 
0.104276 -0.651585 0.162016 
0.0220305 -0.652481 0.162277 
0.0245451 -0.652479 0.162252 
0.0253807 -0.652502 0.162706 
0.0262192 -0.652497 0.162592 
0.0270599 -0.652478 0.162219 
0.0287372 -0.652472 0.162116 
0.103434 -0.652426 0.162019 
0.0211917 -0.653345 0.162781 
0.0224487 -0.653337 0.162635 
0.0237056 -0.653334 0.162577 
0.0245421 -0.653349 0.162861 
0.0274739 -0.653348 0.162851 
0.0287314 -0.653342 0.162731 
0.029573 -0.653323 0.162357 
0.0304146 -0.653307 0.162039 
0.0195163 -0.654173 0.162581 
0.0203541 -0.654179 0.162708 
0.0228666 -0.654191 0.162949 
0.0304063 -0.654182 0.162781 
0.0178405 -0.655009 0.162518 
0.0128102 -0.656668 0.162133 
0.013654 -0.656706 0.162961 
0.0119766 -0.65753 0.162663 
0.0128159 -0.65754 0.162874 
0.0379462 -0.657532 0.162733 
0.0119748 -0.65836 0.162454 
0.0128155 -0.658375 0.162808 
0.0387943 -0.658347 0.162211 
0.0119743 -0.659195 0.162387 
0.0128142 -0.659206 0.162625 
0.0136522 -0.659207 0.162664 
0.0387787 -0.660057 0.162976 
0.0756962 -0.670914 0.162104 
0.0748587 -0.671752 0.162068 
0.0765388 -0.671751 0.162042 
0.0773785 -0.67175 0.162037 
0.0547267 -0.672596 0.162024 
0.05556 -0.672599 0.162166 
0.073979 -0.672612 0.162766 
0.0748301 -0.672605 0.162553 
0.0756721 -0.672603 0.162498 
0.0765202 -0.672598 0.162345 
0.0815363 -0.672605 0.162632 
0.0538787 -0.673442 0.16228 
0.0546929 -0.67346 0.162933 
0.0555303 -0.67346 0.162944 
0.0563678 -0.67346 0.162952 
0.0572046 -0.673461 0.16298 
0.0580444 -0.673459 0.162931 
0.0605595 -0.673458 0.162902 
0.0614054 -0.673452 0.162722 
0.0622554 -0.673445 0.16246 
0.0735491 -0.673455 0.162947 
0.074813 -0.673452 0.162839 
0.0756647 -0.673445 0.162619 
0.0765215 -0.673436 0.162319 
0.0794503 -0.673439 0.162447 
0.0534551 -0.674283 0.162396 
0.0634988 -0.674291 0.162766 
0.0647711 -0.674282 0.162451 
0.0748062 -0.674293 0.162952 
0.0756633 -0.674284 0.162637 
0.0765339 -0.674269 0.16211 
0.0773547 -0.674277 0.16241 
0.0639119 -0.675551 0.162886 
0.0647594 -0.675546 0.16269 
0.065607 -0.675541 0.162499 
0.0664543 -0.675536 0.162322 
0.0672979 -0.675953 0.162221 
0.0681451 -0.675948 0.162058 
0.0748138 -0.675547 0.162814 
0.0756548 -0.675545 0.162773 
0.0764852 -0.67513 0.162912 
0.0639149 -0.676807 0.162816 
0.0647575 -0.676804 0.162723 
0.065602 -0.676801 0.162594 
0.0664492 -0.676796 0.162417 
0.0672898 -0.676795 0.162379 
0.0681362 -0.676791 0.162227 
0.0698131 -0.676791 0.162244 
0.0739642 -0.676809 0.163 
0.063929 -0.677637 0.16251 
0.0647688 -0.677637 0.162481 
0.0656081 -0.677636 0.162464 
0.0664469 -0.677636 0.16246 
0.0672884 -0.677634 0.162402 
0.0685542 -0.67763 0.162252 
0.0697754 -0.677647 0.162948 
0.0664641 -0.678466 0.16211 
0.0673045 -0.678465 0.16208 
0.068553 -0.678469 0.16227 
0.0999749 -0.679314 0.16294 
0.100882 -0.679296 0.162153 
0.0974584 -0.680152 0.16291 
0.098306 -0.680988 0.16281 
0.0997038 -0.680709 0.162831 
0.100864 -0.680559 0.162362 
0.0991651 -0.681822 0.162577 
0.100447 -0.681817 0.162323 
0.099195 -0.682654 0.162219 
0.100044 -0.682652 0.162117 
0.0664467 -0.687695 0.162431 
0.0664466 -0.688534 0.16243 
0.0697708 -0.68854 0.163 
0.0664524 -0.689371 0.162312 
0.0697888 -0.689374 0.162659 
0.0685145 -0.690216 0.16298 
0.0697974 -0.690211 0.162496 
0.0505281 -0.691885 0.162131 
0.0513587 -0.691887 0.162366 
0.0522003 -0.691467 0.162268 
0.0534517 -0.691887 0.162434 
0.0547069 -0.691888 0.162492 
0.0555492 -0.691887 0.162384 
0.0672687 -0.69189 0.162753 
0.0685259 -0.691471 0.162759 
0.0698123 -0.691466 0.162214 
0.0706288 -0.691469 0.16263 
0.0513501 -0.692727 0.162622 
0.0521857 -0.692728 0.162692 
0.0534451 -0.692727 0.16262 
0.0547012 -0.692727 0.162646 
0.0555377 -0.692728 0.162687 
0.0563781 -0.692727 0.162626 
0.0572159 -0.692727 0.162631 
0.0584807 -0.692726 0.162447 
0.0597497 -0.692723 0.162174 
0.0672888 -0.692725 0.162354 
0.068536 -0.692726 0.162561 
0.069823 -0.692722 0.162012 
0.070642 -0.692725 0.162383 
0.0534513 -0.693564 0.162444 
0.0546993 -0.693566 0.162696 
0.0555373 -0.693566 0.162696 
0.0563768 -0.693565 0.162658 
0.0572139 -0.693565 0.162682 
0.058477 -0.693564 0.162537 
0.0597354 -0.693564 0.16251 
0.0605797 -0.693563 0.162371 
0.061425 -0.693562 0.162216 
0.0647842 -0.693561 0.162119 
0.0685446 -0.693563 0.162396 
0.0555507 -0.694401 0.162342 
0.0563847 -0.694402 0.162453 
0.0572192 -0.694403 0.162548 
0.0584792 -0.694402 0.162481 
0.0597375 -0.694402 0.162461 
0.0605846 -0.694401 0.162258 
0.0614298 -0.6944 0.162108 
0.0685586 -0.6944 0.162126 
0.0714489 -0.694405 0.162963 
0.0345976 -0.69524 0.162386 
0.0681433 -0.695238 0.162044 
0.03627 -0.696498 0.162586 
0.0723209 -0.696078 0.162358 
0.0354338 -0.697755 0.162491 
0.0346021 -0.698592 0.1621 
0.0740116 -0.698593 0.162133 
0.0345958 -0.699431 0.162508 
0.0345914 -0.700269 0.162789 
0.0337546 -0.701525 0.162743 
0.0899666 -0.701111 0.162055 
0.0907981 -0.701111 0.162165 
0.0916148 -0.70153 0.162469 
0.0924589 -0.70153 0.162411 
0.09332 -0.701531 0.162136 
0.0329199 -0.702783 0.162534 
0.0915837 -0.702787 0.162878 
0.0924558 -0.702788 0.162453 
0.0933302 -0.70279 0.162008 
0.032915 -0.703619 0.162894 
0.0915778 -0.703625 0.162957 
0.0924487 -0.703626 0.162546 
0.0320851 -0.70446 0.162306 
0.0312494 -0.707814 0.162129 
0.0320887 -0.708653 0.162043 
0.0329241 -0.70949 0.16225 
0.0337551 -0.709485 0.16273 
0.0325018 -0.710325 0.16249 
0.0613952 -0.710324 0.16292 
0.0325049 -0.711166 0.162258 
0.0605665 -0.711164 0.16271 
0.0614191 -0.711168 0.162382 
0.062269 -0.711171 0.162129 
0.0630987 -0.711169 0.162325 
0.0304061 -0.712838 0.162619 
0.0312431 -0.712418 0.16267 
0.0320842 -0.712002 0.162404 
0.02957 -0.713678 0.162469 
0.00443859 -0.720379 0.162687 
0.00652962 -0.720384 0.162449 
0.00442917 -0.72123 0.162125 
0.00526905 -0.721227 0.162231 
0.00652531 -0.721229 0.162164 
0.0103 -0.721222 0.162457 
0.0111371 -0.721224 0.162377 
0.0044282 -0.722489 0.162076 
0.00526681 -0.722488 0.162098 
0.00652731 -0.722483 0.162318 
0.00778559 -0.722481 0.16241 
0.00862219 -0.722483 0.162299 
0.00946263 -0.722897 0.162517 
0.0102977 -0.722484 0.162248 
0.0111335 -0.722909 0.162015 
0.00526753 -0.723745 0.162153 
0.00652728 -0.72374 0.162324 
0.00778479 -0.72374 0.162358 
0.00862488 -0.723735 0.16253 
0.0094634 -0.723733 0.162591 
0.0103014 -0.723733 0.162609 
0.0111367 -0.723739 0.162357 
0.0052673 -0.724584 0.162145 
0.00652779 -0.724578 0.162367 
0.00778638 -0.724575 0.162487 
0.00862514 -0.724573 0.162558 
0.00946321 -0.724572 0.162581 
0.0103013 -0.724571 0.162615 
0.0115587 -0.724569 0.162689 
0.00442767 -0.725425 0.162067 
0.00526775 -0.725421 0.16218 
0.00652672 -0.725418 0.162299 
0.00778664 -0.725412 0.162513 
0.00862586 -0.725409 0.162625 
0.00946421 -0.725408 0.162677 
0.0103028 -0.725405 0.162759 
0.0115598 -0.725403 0.162824 
0.0128162 -0.725403 0.162828 
0.00358843 -0.726265 0.162021 
0.00443088 -0.726258 0.162267 
0.00526865 -0.726258 0.162244 
0.00652744 -0.726255 0.162357 
0.00778703 -0.726249 0.16255 
0.00862665 -0.726245 0.162696 
0.00946492 -0.726244 0.162747 
0.0103032 -0.726242 0.162811 
0.0115606 -0.726239 0.162921 
0.0136541 -0.726239 0.162897 
0.00149659 -0.727098 0.162235 
0.00275076 -0.727102 0.162066 
0.00526822 -0.727098 0.162224 
0.00667061 -0.727365 0.162612 
0.00778908 -0.727502 0.162718 
0.00862739 -0.7275 0.162769 
0.00946594 -0.727498 0.162849 
0.0103043 -0.727496 0.162923 
0.0115607 -0.727076 0.162945 
0.0144906 -0.727082 0.162733 
0.0153255 -0.727936 0.162186 
0.00946681 -0.728752 0.162937 
0.0161665 -0.729591 0.162911 
0.0170029 -0.731279 0.162558 
0.0287323 -0.737983 0.162645 
0.0278997 -0.738008 0.16203 
0.038799 -0.73801 0.162039 
0.0396363 -0.738007 0.162096 
0.0404681 -0.738414 0.162404 
0.0413083 -0.738838 0.16232 
0.0429824 -0.738834 0.162419 
0.0454885 -0.738822 0.162734 
0.0463328 -0.738831 0.16251 
0.0278959 -0.739667 0.162491 
0.0412941 -0.73965 0.162953 
0.0425659 -0.739677 0.162326 
0.0463428 -0.739685 0.162165 
0.0471775 -0.739679 0.162295 
0.048018 -0.739683 0.162226 
0.0287367 -0.740518 0.162202 
0.042976 -0.740499 0.162702 
0.0438185 -0.740507 0.162522 
0.0446633 -0.740519 0.162271 
0.0484422 -0.740528 0.162073 
0.0295771 -0.741366 0.162006 
0.0304086 -0.741339 0.162629 
0.0446455 -0.741327 0.162957 
0.0454932 -0.741344 0.162591 
0.0463465 -0.741368 0.162051 
0.0471763 -0.741355 0.162356 
0.0488624 -0.741369 0.162053 
0.0312492 -0.742187 0.162417 
0.0471645 -0.742175 0.162775 
0.0484379 -0.7422 0.162235 
0.0479986 -0.743007 0.162915 
0.0488485 -0.743445 0.162529 
0.0496997 -0.743883 0.162128 
0.0496909 -0.744709 0.162418 
0.0119749 -0.745533 0.162614 
0.0496834 -0.745536 0.162663 
0.0505411 -0.745565 0.162064 
0.0119733 -0.74638 0.162445 
0.00653075 -0.750553 0.16287 
0.00358563 -0.751432 0.162156 
0.00442362 -0.751433 0.162126 
0.00526741 -0.751414 0.162462 
0.00652933 -0.751396 0.162786 
0.00778893 -0.751385 0.162993 
0.00442193 -0.752278 0.162037 
0.00526709 -0.752254 0.162454 
0.00652697 -0.752244 0.162632 
0.00778806 -0.752226 0.162939 
0.00442223 -0.753115 0.162068 
0.00526238 -0.753529 0.162174 
0.00652581 -0.753506 0.162571 
0.00778519 -0.753496 0.162739 
0.00862404 -0.753492 0.162811 
0.00946317 -0.753904 0.162928 
0.0102998 -0.753911 0.162817 
0.0052594 -0.754798 0.162004 
0.00652197 -0.754779 0.162326 
0.0077816 -0.75477 0.162483 
0.00862152 -0.754761 0.162624 
0.00945803 -0.754769 0.162484 
0.00651895 -0.75563 0.162127 
0.00777757 -0.755626 0.162188 
0.0484424 -0.756466 0.162283 
0.00358736 -0.757297 0.162349 
0.0496991 -0.757302 0.162342 
0.0505183 -0.757266 0.162938 
0.0521932 -0.757265 0.16298 
0.053048 -0.757294 0.162505 
0.050543 -0.758152 0.162193 
0.0513716 -0.758133 0.162501 
0.0522108 -0.758135 0.162481 
0.0530636 -0.75816 0.162077 
-0.164179 -0.76857 0.162048 
-0.163319 -0.768563 0.162097 
-0.160679 -0.76852 0.162572 
-0.173549 -0.769451 0.162001 
-0.17267 -0.769438 0.162136 
-0.171806 -0.76943 0.162201 
-0.170521 -0.769422 0.162245 
-0.169202 -0.769402 0.162456 
-0.168294 -0.769378 0.162745 
-0.167425 -0.769368 0.16284 
-0.166559 -0.769359 0.16292 
-0.175237 -0.770296 0.162088 
-0.174354 -0.770281 0.162237 
-0.173471 -0.770267 0.162391 
-0.172601 -0.770256 0.162487 
-0.171725 -0.770244 0.16261 
-0.170849 -0.770231 0.162734 
-0.16996 -0.770214 0.162929 
-0.176107 -0.771571 0.16202 
-0.17522 -0.771555 0.162193 
-0.174347 -0.771544 0.162294 
-0.173463 -0.771528 0.162455 
-0.172588 -0.771516 0.162576 
-0.171709 -0.771502 0.162712 
-0.170818 -0.771484 0.162911 
-0.175233 -0.772825 0.162154 
-0.174349 -0.772809 0.16231 
-0.173476 -0.772798 0.162414 
-0.172597 -0.772784 0.162553 
-0.171705 -0.772765 0.162753 
-0.170824 -0.77275 0.162906 
-0.175245 -0.773673 0.162112 
-0.174358 -0.773656 0.16228 
-0.17349 -0.773646 0.162362 
-0.17261 -0.773631 0.162508 
-0.17172 -0.773613 0.1627 
-0.170828 -0.773594 0.162902 
-0.175262 -0.774523 0.162045 
-0.174384 -0.774509 0.162174 
-0.173503 -0.774494 0.162317 
-0.172626 -0.774481 0.162443 
-0.171736 -0.774462 0.162635 
-0.170842 -0.774442 0.162851 
-0.175272 -0.77537 0.162012 
-0.174393 -0.775356 0.162146 
-0.173518 -0.775343 0.162261 
-0.172637 -0.775328 0.162407 
-0.171747 -0.775309 0.162598 
-0.170866 -0.775294 0.162748 
-0.169967 -0.775271 0.162991 
-0.174401 -0.776202 0.162125 
-0.17353 -0.776191 0.162221 
-0.172652 -0.776177 0.162351 
-0.171768 -0.77616 0.162514 
-0.170874 -0.776561 0.162736 
-0.169979 -0.77654 0.162956 
-0.175281 -0.777061 0.162004 
-0.174415 -0.777473 0.162081 
-0.173541 -0.777461 0.162193 
-0.172662 -0.777446 0.162325 
-0.171782 -0.777431 0.162469 
-0.170445 -0.777822 0.162777 
-0.174427 -0.778744 0.162047 
-0.173545 -0.778727 0.162197 
-0.172671 -0.778714 0.16231 
-0.171788 -0.778698 0.162465 
-0.170448 -0.778666 0.162779 
-0.169129 -0.778643 0.162994 
-0.174437 -0.779591 0.162015 
-0.173562 -0.779578 0.162129 
-0.172685 -0.779564 0.162256 
-0.171805 -0.779548 0.162399 
-0.170461 -0.779514 0.162734 
-0.169138 -0.779489 0.16297 
-0.194228 -0.415859 0.161025 
-0.193339 -0.415908 0.161155 
-0.192454 -0.415952 0.161268 
-0.194216 -0.416725 0.161031 
-0.193322 -0.416782 0.161186 
-0.19243 -0.416836 0.161332 
-0.191556 -0.41644 0.161419 
-0.190671 -0.416486 0.161539 
-0.189777 -0.416544 0.161698 
-0.188872 -0.416191 0.161928 
-0.194204 -0.417592 0.161039 
-0.193302 -0.417659 0.161227 
-0.192417 -0.417703 0.161343 
-0.191535 -0.417745 0.161447 
-0.190648 -0.417792 0.161572 
-0.189743 -0.417866 0.161785 
-0.188857 -0.417487 0.161929 
-0.19417 -0.418488 0.161145 
-0.193284 -0.418534 0.161264 
-0.192396 -0.418583 0.161393 
-0.19151 -0.418628 0.161513 
-0.190618 -0.418684 0.161666 
-0.189721 -0.418746 0.161839 
-0.188837 -0.418791 0.161956 
-0.194154 -0.41936 0.16117 
-0.193268 -0.419406 0.161289 
-0.192384 -0.41945 0.161403 
-0.191484 -0.419514 0.161586 
-0.1906 -0.419558 0.161699 
-0.18971 -0.419611 0.161844 
-0.188824 -0.419658 0.161969 
0.08982 -0.419836 0.16164 
0.0906619 -0.419857 0.161721 
-0.194158 -0.420207 0.161111 
-0.193253 -0.420276 0.161312 
-0.192363 -0.420328 0.161452 
-0.191457 -0.420401 0.161662 
-0.190594 -0.420417 0.161683 
-0.189697 -0.420478 0.161856 
-0.18882 -0.420513 0.161942 
0.0898069 -0.420736 0.161766 
0.09065 -0.420751 0.16183 
0.0914986 -0.420745 0.161821 
0.0923443 -0.42075 0.16185 
-0.194151 -0.421492 0.161076 
-0.193256 -0.421549 0.161234 
-0.192372 -0.421593 0.161348 
-0.191457 -0.421252 0.16162 
-0.19058 -0.421286 0.161701 
-0.189696 -0.421331 0.16182 
-0.188824 -0.421359 0.161884 
-0.187954 -0.421384 0.161935 
0.0885299 -0.421609 0.161787 
0.0897981 -0.421618 0.161835 
0.090645 -0.421618 0.161847 
0.0914935 -0.421612 0.161839 
0.0923389 -0.421617 0.16187 
0.093186 -0.421617 0.161881 
0.0940325 -0.421618 0.161898 
-0.19152 -0.422019 0.161297 
-0.190613 -0.422093 0.161513 
-0.189787 -0.422485 0.161344 
-0.188596 -0.422702 0.16155 
-0.187411 -0.422487 0.16175 
-0.186357 -0.422945 0.161309 
0.0885222 -0.422487 0.161843 
0.0897931 -0.422485 0.161852 
0.0906397 -0.422486 0.161867 
0.0914859 -0.422488 0.161889 
0.0923334 -0.422485 0.161892 
0.0931798 -0.422487 0.161911 
0.0944498 -0.422488 0.161933 
-0.185457 -0.423012 0.161505 
-0.184514 -0.423136 0.161893 
-0.183665 -0.423136 0.161858 
-0.182453 -0.423898 0.161469 
-0.181148 -0.423938 0.161556 
-0.180321 -0.423906 0.161414 
-0.179451 -0.423934 0.161477 
-0.178594 -0.423942 0.161474 
-0.176857 -0.423994 0.161587 
0.0906342 -0.423354 0.161891 
0.0914812 -0.423353 0.161901 
0.0923282 -0.423352 0.161911 
0.0931759 -0.423349 0.161912 
0.0944453 -0.423351 0.16194 
-0.177669 -0.424046 0.161795 
-0.175529 -0.424068 0.16179 
-0.174223 -0.424112 0.161892 
-0.173353 -0.42414 0.161959 
0.0906274 -0.424227 0.161932 
0.0914774 -0.424214 0.161902 
0.0923248 -0.424212 0.161906 
0.0931728 -0.424207 0.161902 
0.0944429 -0.424207 0.161921 
0.0957093 -0.42422 0.161987 
0.0906225 -0.425093 0.161949 
0.0914713 -0.425085 0.161933 
0.0923163 -0.425091 0.161967 
0.0931635 -0.425089 0.161972 
0.094436 -0.425079 0.16196 
-0.0397881 -0.426626 0.161157 
0.0533864 -0.426669 0.161038 
0.0533621 -0.427715 0.161671 
0.0542327 -0.427522 0.161013 
0.0495715 -0.428397 0.161028 
0.0508301 -0.428499 0.161392 
0.0516773 -0.428494 0.161379 
0.0525201 -0.428525 0.161491 
0.0533696 -0.4285 0.161412 
0.0736692 -0.428587 0.1619 
0.0745126 -0.428601 0.161959 
0.0871867 -0.437985 0.161861 
0.0884548 -0.437988 0.161892 
0.0863456 -0.438812 0.161732 
0.0871911 -0.438814 0.161752 
0.088457 -0.438826 0.161814 
0.089727 -0.438822 0.16182 
0.0931044 -0.438846 0.161957 
0.094795 -0.43885 0.162 
0.0956485 -0.438824 0.16192 
0.09651 -0.438771 0.161744 
0.0973912 -0.438653 0.161333 
0.0854995 -0.439658 0.161673 
0.0863482 -0.439648 0.161648 
0.0871953 -0.439644 0.161646 
0.0884591 -0.439664 0.161737 
0.0897314 -0.439652 0.161713 
0.0905846 -0.439625 0.161631 
0.0914193 -0.439667 0.161794 
0.0922631 -0.439675 0.161836 
0.0935617 -0.43957 0.161479 
0.0948568 -0.439481 0.161177 
0.0855071 -0.440474 0.161517 
0.0863554 -0.440466 0.161499 
0.0872022 -0.440463 0.161501 
0.0884634 -0.440494 0.161631 
0.0897412 -0.440461 0.161533 
0.0906076 -0.440387 0.161277 
0.0914444 -0.440422 0.161417 
0.0922935 -0.440412 0.161394 
0.181598 -0.440566 0.161014 
0.0846629 -0.441312 0.161429 
0.0855115 -0.441303 0.161406 
0.0863623 -0.441285 0.161353 
0.0872012 -0.441313 0.161469 
0.0884706 -0.441313 0.161486 
0.0897561 -0.441252 0.161285 
0.0906231 -0.441177 0.161024 
0.0914605 -0.44121 0.161158 
0.0838218 -0.442984 0.161247 
0.0846694 -0.442556 0.161264 
0.0855174 -0.442549 0.16125 
0.0863635 -0.44255 0.161266 
0.0872139 -0.442534 0.16122 
0.0884826 -0.442114 0.161274 
0.163666 -0.442458 0.161078 
0.165377 -0.44243 0.16103 
0.184526 -0.44233 0.161268 
0.0838207 -0.443835 0.161216 
0.0846716 -0.443816 0.161161 
0.0855223 -0.443799 0.161109 
0.0863731 -0.443782 0.161059 
0.0872186 -0.443785 0.161084 
0.163615 -0.443397 0.161368 
0.164485 -0.443357 0.161245 
0.182398 -0.443188 0.161189 
0.183219 -0.443231 0.161374 
0.184479 -0.443251 0.161488 
0.0829729 -0.444688 0.161182 
0.0838242 -0.444667 0.161118 
0.0846713 -0.444664 0.161117 
0.0855209 -0.444651 0.161083 
0.0863705 -0.444638 0.161048 
0.163557 -0.444348 0.161702 
0.164478 -0.444218 0.161249 
0.182414 -0.444012 0.161055 
0.18344 -0.44446 0.161682 
0.0829741 -0.445529 0.161117 
0.0838272 -0.445502 0.161028 
0.0855232 -0.445488 0.161003 
0.0863703 -0.445485 0.161004 
0.164482 -0.445059 0.161178 
0.18395 -0.44511 0.161985 
0.184 -0.445881 0.161657 
0.0825462 -0.446395 0.161136 
0.0838254 -0.446355 0.161006 
0.184105 -0.446566 0.161012 
0.0821247 -0.447235 0.16106 
0.0838223 -0.447213 0.161005 
0.184882 -0.447525 0.161407 
0.0821237 -0.448508 0.161005 
0.185676 -0.449303 0.161655 
0.0812365 -0.45079 0.161505 
0.0820976 -0.455803 0.161007 
0.0820835 -0.456704 0.161174 
0.0829383 -0.457514 0.161004 
0.158372 -0.460622 0.161393 
0.0905275 -0.461819 0.161188 
0.091386 -0.461775 0.161031 
0.0947688 -0.461774 0.161082 
0.158388 -0.461441 0.161242 
0.190685 -0.461282 0.161665 
0.1916 -0.461188 0.161323 
0.0896898 -0.462638 0.161025 
0.0905194 -0.462692 0.161252 
0.0913633 -0.462697 0.161285 
0.0922104 -0.462691 0.161275 
0.0934811 -0.462682 0.161262 
0.094758 -0.462654 0.161172 
0.0955831 -0.462718 0.16144 
0.0964239 -0.462732 0.16151 
0.15586 -0.462265 0.161036 
0.156713 -0.462254 0.161017 
0.158394 -0.462277 0.161155 
0.19068 -0.462136 0.161649 
0.191544 -0.462114 0.16159 
0.193311 -0.462015 0.161261 
0.0888404 -0.463497 0.161021 
0.0896816 -0.463511 0.161092 
0.0905261 -0.463515 0.161118 
0.0913603 -0.463552 0.161279 
0.0921967 -0.463581 0.161408 
0.0934593 -0.463598 0.161496 
0.0947235 -0.463609 0.161561 
0.0955634 -0.463625 0.16164 
0.0964087 -0.463625 0.161652 
0.0972467 -0.463646 0.161752 
0.0985002 -0.463688 0.161941 
0.155819 -0.463183 0.161272 
0.156651 -0.46321 0.161403 
0.157496 -0.463212 0.161439 
0.158349 -0.4632 0.161416 
0.159145 -0.463287 0.161787 
0.190623 -0.463487 0.161902 
0.193203 -0.46301 0.161802 
0.0888362 -0.464357 0.161034 
0.0896726 -0.464387 0.161168 
0.0905114 -0.464409 0.16127 
0.0913513 -0.464427 0.161353 
0.0921877 -0.464456 0.161481 
0.0934517 -0.464467 0.161549 
0.0947113 -0.464493 0.16167 
0.0955492 -0.464515 0.161773 
0.0963835 -0.464547 0.161916 
0.0972305 -0.464541 0.161905 
0.155729 -0.464187 0.161857 
0.156584 -0.464171 0.161815 
0.08883 -0.465223 0.161073 
0.0896653 -0.465257 0.161222 
0.0905025 -0.465284 0.161343 
0.0913458 -0.46529 0.161381 
0.0921811 -0.465322 0.161522 
0.0934452 -0.465333 0.161587 
0.0947034 -0.465362 0.161725 
0.0955473 -0.465365 0.161751 
0.0963822 -0.465396 0.161889 
0.0904981 -0.466144 0.161357 
0.0913422 -0.466147 0.161385 
0.0921749 -0.466187 0.161559 
0.0934373 -0.466203 0.161643 
0.094695 -0.466233 0.161786 
0.0955353 -0.466247 0.161856 
0.0963733 -0.466268 0.161954 
0.091328 -0.467039 0.161526 
0.0921691 -0.467051 0.161591 
0.0935688 -0.467359 0.161706 
0.0946834 -0.467537 0.161866 
0.0955205 -0.46756 0.161974 
0.0136034 -0.47068 0.161853 
0.0144434 -0.470516 0.16118 
0.186406 -0.470661 0.161292 
0.0144475 -0.47153 0.161831 
0.185582 -0.471476 0.161088 
0.0152887 -0.472239 0.161232 
0.188919 -0.472394 0.161459 
0.0152904 -0.473169 0.161542 
0.0161337 -0.473964 0.16129 
0.188906 -0.473259 0.161495 
0.0152926 -0.474538 0.161901 
0.0161349 -0.474879 0.161541 
0.0152934 -0.475843 0.162 
0.016135 -0.475723 0.161499 
0.0161349 -0.476564 0.161444 
0.184702 -0.476605 0.161004 
0.185546 -0.476608 0.161049 
0.186404 -0.476594 0.161018 
0.0161351 -0.477421 0.161452 
0.18467 -0.477495 0.161145 
0.185523 -0.477486 0.161138 
0.186382 -0.477471 0.161106 
0.0152925 -0.478327 0.161673 
0.0161342 -0.478213 0.161188 
0.183809 -0.478361 0.161156 
0.18465 -0.478369 0.161219 
0.185525 -0.478332 0.161091 
0.186367 -0.478338 0.161147 
0.0152912 -0.479533 0.161353 
0.183748 -0.479289 0.161461 
0.184623 -0.479251 0.161331 
0.185511 -0.479197 0.161128 
0.0152906 -0.480768 0.161157 
0.183723 -0.480169 0.161565 
0.184606 -0.480545 0.16137 
0.185492 -0.480493 0.161179 
0.186369 -0.48003 0.161059 
0.103144 -0.481437 0.161145 
0.107337 -0.481515 0.161563 
0.10818 -0.481518 0.161594 
0.183726 -0.481435 0.161487 
0.184591 -0.481835 0.161396 
0.185491 -0.481764 0.161123 
0.103121 -0.482343 0.161367 
0.105663 -0.482323 0.16133 
0.10645 -0.482467 0.161969 
0.182869 -0.482719 0.161461 
0.183717 -0.482717 0.161481 
0.184587 -0.482686 0.16138 
0.0144469 -0.483312 0.161082 
0.103528 -0.483227 0.161507 
0.104778 -0.483269 0.161713 
0.105611 -0.483297 0.16185 
0.182867 -0.483568 0.161432 
0.183714 -0.483567 0.161458 
0.184615 -0.483496 0.161178 
0.0136069 -0.484293 0.161635 
0.182441 -0.484418 0.161395 
0.183724 -0.484401 0.161366 
0.01276 -0.485036 0.161153 
0.181161 -0.485279 0.161372 
0.182451 -0.485251 0.161296 
0.183733 -0.485236 0.161275 
0.179455 -0.486989 0.161313 
0.180308 -0.486557 0.161323 
0.181163 -0.486546 0.161303 
0.182466 -0.486502 0.161155 
0.176893 -0.487866 0.161322 
0.177738 -0.487868 0.161359 
0.178595 -0.487429 0.16134 
0.179453 -0.487837 0.161283 
0.180304 -0.487831 0.161284 
0.18118 -0.487793 0.161145 
0.00770254 -0.488514 0.161453 
0.173533 -0.488678 0.161015 
0.174367 -0.488694 0.161117 
0.175214 -0.488694 0.161145 
0.176472 -0.488709 0.161254 
0.177745 -0.488705 0.161279 
0.178595 -0.488699 0.161283 
0.17945 -0.488688 0.161264 
0.18031 -0.48867 0.161211 
0.00769988 -0.489312 0.161208 
0.174375 -0.489529 0.16103 
0.175213 -0.489542 0.161112 
0.176471 -0.489556 0.161219 
0.17775 -0.489544 0.161211 
0.178616 -0.489517 0.161119 
0.179479 -0.489496 0.161053 
0.00769792 -0.490122 0.161016 
0.0102339 -0.490219 0.161445 
0.0962939 -0.490982 0.1617 
0.175219 -0.490379 0.161032 
0.176478 -0.490394 0.161142 
0.00854646 -0.491052 0.161358 
0.0945783 -0.491904 0.161984 
0.0954255 -0.491894 0.161951 
0.0962808 -0.491862 0.161822 
0.0971262 -0.491435 0.161835 
0.175218 -0.491226 0.161 
0.176061 -0.491232 0.161052 
0.0946199 -0.492632 0.16142 
0.0954588 -0.492646 0.161498 
0.0963121 -0.49262 0.161396 
0.0971015 -0.498671 0.161797 
0.0975298 -0.499497 0.161684 
0.0979486 -0.500348 0.161688 
0.0988093 -0.502836 0.161382 
0.160626 -0.50336 0.161362 
0.181933 -0.50399 0.161001 
0.18277 -0.504 0.16108 
0.18449 -0.503121 0.16102 
0.185184 -0.503302 0.161913 
0.160673 -0.504139 0.161007 
0.181893 -0.504883 0.161194 
0.182652 -0.504987 0.161725 
0.183581 -0.504042 0.161312 
0.160615 -0.505488 0.161344 
0.161488 -0.505872 0.161162 
0.182661 -0.505823 0.16164 
0.183464 -0.505027 0.161945 
0.0928875 -0.506254 0.161336 
0.0937544 -0.506193 0.161052 
0.094589 -0.506216 0.161181 
0.0954354 -0.506209 0.16116 
0.0987805 -0.506281 0.161572 
0.161468 -0.506745 0.16126 
0.182744 -0.506569 0.161121 
0.183452 -0.506732 0.161947 
0.0945527 -0.507154 0.161599 
0.0953885 -0.507173 0.161706 
0.0962632 -0.507093 0.161333 
0.0979457 -0.507104 0.161415 
0.0987501 -0.507199 0.161896 
0.0996015 -0.5076 0.161793 
0.101308 -0.507975 0.161574 
0.102184 -0.507053 0.161249 
0.161472 -0.507584 0.161195 
0.183511 -0.507508 0.16157 
0.0970592 -0.508054 0.161887 
0.0987467 -0.508051 0.161898 
0.0996065 -0.508853 0.161678 
0.100464 -0.508397 0.161543 
0.157129 -0.520414 0.161332 
0.192864 -0.521826 0.161041 
0.157919 -0.522173 0.161663 
0.158782 -0.523838 0.161494 
0.191054 -0.52364 0.161563 
0.192417 -0.523543 0.161093 
0.189416 -0.524431 0.161174 
0.191027 -0.524513 0.161679 
0.159611 -0.525545 0.161555 
0.190617 -0.525345 0.161558 
0.191943 -0.525286 0.161289 
0.158761 -0.527241 0.161503 
0.159656 -0.527178 0.161187 
0.160528 -0.527143 0.161026 
0.157925 -0.528074 0.161382 
0.158726 -0.528127 0.161703 
0.159539 -0.528165 0.161936 
0.161254 -0.528131 0.161806 
0.0498283 -0.534343 0.161059 
0.0515111 -0.53435 0.161113 
0.0523489 -0.534372 0.161243 
0.0531941 -0.534356 0.161159 
0.0544603 -0.534341 0.161084 
0.0995102 -0.53435 0.161749 
0.100364 -0.534325 0.161626 
0.101199 -0.53434 0.161725 
0.102487 -0.534291 0.161475 
0.0498217 -0.535222 0.161235 
0.0515115 -0.53519 0.16107 
0.052347 -0.535224 0.161266 
0.0531912 -0.535212 0.161208 
0.054453 -0.535218 0.16125 
0.0557231 -0.535185 0.16107 
0.0995192 -0.535173 0.161609 
0.100365 -0.535166 0.161583 
0.101204 -0.535173 0.161642 
0.102473 -0.535162 0.161602 
0.104566 -0.535186 0.161784 
0.052345 -0.536076 0.161291 
0.0531873 -0.536074 0.161286 
0.0545905 -0.536354 0.161283 
0.0557177 -0.536473 0.161164 
0.0565624 -0.53646 0.161099 
0.097808 -0.536914 0.161835 
0.0986641 -0.536463 0.161697 
0.0995099 -0.536456 0.16167 
0.100351 -0.536457 0.161696 
0.101191 -0.536462 0.161736 
0.102451 -0.536468 0.161796 
0.103718 -0.536459 0.161774 
0.10455 -0.536058 0.16192 
0.0704568 -0.537722 0.161185 
0.0734132 -0.537694 0.161059 
0.0986672 -0.53772 0.161612 
0.0994923 -0.537755 0.161828 
0.100343 -0.537737 0.161744 
0.101187 -0.537734 0.161739 
0.102435 -0.537762 0.161926 
0.0708428 -0.538675 0.161802 
0.0717133 -0.538584 0.161287 
0.0725673 -0.538547 0.161081 
0.0734061 -0.538557 0.161151 
0.0742519 -0.538546 0.161098 
0.0750955 -0.538542 0.161084 
0.0784678 -0.538532 0.161073 
0.0792997 -0.53856 0.161249 
0.0801388 -0.538568 0.161308 
0.101168 -0.538613 0.16192 
0.0716784 -0.539535 0.161887 
0.0725201 -0.539534 0.161892 
0.0733813 -0.539474 0.161555 
0.0742478 -0.539401 0.161136 
0.0755097 -0.539404 0.161174 
0.0767644 -0.539428 0.161331 
0.0776062 -0.539429 0.161344 
0.0784547 -0.539411 0.161251 
0.0792895 -0.53943 0.161378 
0.0805542 -0.539426 0.161368 
0.0818221 -0.539413 0.161312 
0.082629 -0.539503 0.161851 
0.0733613 -0.540376 0.161874 
0.0742376 -0.540273 0.16128 
0.0755045 -0.540262 0.16123 
0.0767637 -0.540272 0.161309 
0.077604 -0.540277 0.161347 
0.0784377 -0.540299 0.161491 
0.0792728 -0.540317 0.161609 
0.0805327 -0.540324 0.161669 
0.081791 -0.540335 0.161752 
0.0826172 -0.540375 0.161995 
0.0775972 -0.541138 0.161426 
0.0784274 -0.541169 0.161624 
0.0792652 -0.54118 0.161698 
0.0806693 -0.541456 0.161685 
0.0817767 -0.541214 0.161937 
0.0784267 -0.542013 0.161604 
0.0792575 -0.542042 0.161788 
0.0800971 -0.542047 0.161829 
0.0843112 -0.54203 0.161794 
0.110491 -0.543557 0.161274 
0.111338 -0.543548 0.161238 
0.151895 -0.543411 0.161483 
0.110478 -0.544422 0.161378 
0.115511 -0.544456 0.161697 
0.116328 -0.544495 0.161954 
0.15022 -0.544241 0.16132 
0.151068 -0.544235 0.161312 
0.110435 -0.545338 0.161794 
0.116385 -0.545246 0.161371 
0.117191 -0.545305 0.161746 
0.118491 -0.545247 0.161422 
0.0397092 -0.546243 0.161211 
0.0405434 -0.546298 0.161549 
0.041379 -0.546338 0.161797 
0.0439022 -0.546336 0.161803 
0.117244 -0.546062 0.161197 
0.118924 -0.54607 0.161285 
0.0388634 -0.547541 0.161376 
0.0396998 -0.547158 0.161629 
0.0405349 -0.547203 0.161908 
0.111273 -0.54787 0.161758 
0.119696 -0.547022 0.161942 
0.0388605 -0.548826 0.161475 
0.0396956 -0.548452 0.161782 
0.0405338 -0.548892 0.161894 
0.0514741 -0.548004 0.161701 
0.0540162 -0.548761 0.161169 
0.111279 -0.548701 0.161661 
0.120532 -0.548715 0.161958 
0.0413868 -0.549647 0.161331 
0.054835 -0.549701 0.161758 
0.0556965 -0.549615 0.161225 
0.111296 -0.549515 0.161456 
0.0556737 -0.550552 0.161795 
0.0565345 -0.55047 0.16129 
0.111279 -0.550385 0.161602 
0.0556665 -0.551423 0.161953 
0.0565202 -0.55137 0.161627 
0.0573797 -0.551297 0.161173 
0.11126 -0.551258 0.161765 
0.0544203 -0.552199 0.1615 
0.0556799 -0.552208 0.16157 
0.0565265 -0.552186 0.161435 
0.0573775 -0.552147 0.161198 
0.110398 -0.552976 0.161904 
0.111241 -0.552131 0.161934 
0.109554 -0.555504 0.16182 
0.108722 -0.557593 0.161628 
0.107884 -0.558849 0.161525 
0.073313 -0.560698 0.161992 
0.0817644 -0.560596 0.161424 
0.0826157 -0.560574 0.161286 
0.126489 -0.560419 0.161134 
0.0817412 -0.56149 0.16175 
0.0825894 -0.561474 0.161653 
0.0918857 -0.561387 0.161218 
0.0926905 -0.561457 0.161708 
0.125606 -0.561314 0.161438 
0.126477 -0.561276 0.161208 
0.129399 -0.561309 0.161505 
0.0825768 -0.562343 0.161813 
0.083455 -0.562262 0.161274 
0.091453 -0.562252 0.16134 
0.0926957 -0.562289 0.161613 
0.0935178 -0.562325 0.161872 
0.124722 -0.562211 0.161763 
0.125614 -0.562566 0.161325 
0.126485 -0.56253 0.161096 
0.128131 -0.562157 0.161485 
0.0826043 -0.563124 0.161373 
0.0834635 -0.563085 0.16112 
0.0843038 -0.563508 0.161136 
0.0855694 -0.56308 0.161121 
0.0885226 -0.563906 0.161033 
0.0893575 -0.563919 0.161138 
0.0902009 -0.563495 0.161141 
0.0914508 -0.563518 0.161326 
0.0926906 -0.56356 0.161636 
0.0935194 -0.563163 0.161823 
0.123851 -0.563512 0.161969 
0.124717 -0.56348 0.161769 
0.125634 -0.563804 0.161111 
0.126409 -0.56389 0.161721 
0.127268 -0.563027 0.161625 
0.0834094 -0.564042 0.161892 
0.0851475 -0.564766 0.161076 
0.0893501 -0.564775 0.161211 
0.0901836 -0.56479 0.16133 
0.0914481 -0.564786 0.161319 
0.0926844 -0.564834 0.161675 
0.0935168 -0.564429 0.161815 
0.0943486 -0.564446 0.161945 
0.124726 -0.564732 0.161651 
0.12554 -0.564767 0.161918 
0.0927139 -0.56562 0.161267 
0.093556 -0.565619 0.161272 
0.09439 -0.565633 0.161381 
0.0952073 -0.565676 0.161698 
0.123851 -0.565616 0.161901 
0.124707 -0.565598 0.161793 
0.0868268 -0.566456 0.161099 
0.123844 -0.566467 0.161936 
0.122996 -0.567317 0.161949 
0.122996 -0.568159 0.161926 
0.120457 -0.569861 0.161948 
0.121297 -0.569862 0.161981 
0.122159 -0.569415 0.161822 
0.120459 -0.570699 0.161901 
0.121308 -0.570689 0.16185 
0.122173 -0.570659 0.161651 
0.118763 -0.571558 0.161963 
0.120462 -0.571537 0.16185 
0.121321 -0.571514 0.1617 
0.122166 -0.57151 0.161691 
0.119611 -0.57239 0.161889 
0.120469 -0.572368 0.161751 
0.121352 -0.572316 0.161389 
0.122168 -0.572348 0.161644 
0.119664 -0.573585 0.161354 
0.120501 -0.573591 0.16142 
0.121383 -0.57312 0.16108 
0.122182 -0.573172 0.161489 
0.11876 -0.574927 0.161888 
0.119694 -0.57481 0.161035 
0.1205 -0.574855 0.16139 
0.12216 -0.574463 0.16166 
0.103588 -0.575815 0.161887 
0.11798 -0.57569 0.161253 
0.118792 -0.575727 0.161553 
0.119689 -0.575659 0.161058 
0.120505 -0.57569 0.161316 
0.122169 -0.575713 0.161533 
0.117994 -0.576515 0.161099 
0.118822 -0.576531 0.161246 
0.12053 -0.576501 0.16106 
0.122207 -0.576509 0.161157 
0.118414 -0.577357 0.161088 
0.11798 -0.578215 0.161178 
0.11884 -0.578193 0.161026 
0.118784 -0.579524 0.161521 
0.123024 -0.579906 0.161306 
0.191576 -0.579647 0.16149 
0.093472 -0.580903 0.161878 
0.0943455 -0.58043 0.161489 
0.11874 -0.580839 0.161905 
0.191628 -0.580454 0.161183 
0.119646 -0.581603 0.161288 
0.0926871 -0.582494 0.161096 
0.119582 -0.58252 0.161867 
0.123789 -0.582517 0.161948 
0.120478 -0.583297 0.161351 
0.123862 -0.583277 0.161269 
0.120443 -0.5846 0.161645 
0.120454 -0.585849 0.1615 
0.125482 -0.585029 0.161825 
0.126336 -0.585856 0.161711 
0.120494 -0.586645 0.161107 
0.127243 -0.586628 0.161131 
0.128872 -0.587526 0.161621 
0.120465 -0.588361 0.16133 
0.0438653 -0.589406 0.16187 
0.0842103 -0.589337 0.161728 
0.085507 -0.589276 0.161227 
0.141587 -0.589544 0.161187 
0.0430354 -0.590199 0.161443 
0.0817014 -0.590156 0.161485 
0.082545 -0.590151 0.16145 
0.0430323 -0.591473 0.161535 
0.0430213 -0.592785 0.161951 
0.0926147 -0.593536 0.161733 
0.0934781 -0.594343 0.16143 
0.0955569 -0.596476 0.161695 
0.0967939 -0.597768 0.161973 
0.182119 -0.60253 0.161578 
0.183044 -0.60248 0.161136 
0.182589 -0.603343 0.161295 
0.165246 -0.604227 0.161053 
0.182592 -0.604185 0.161258 
0.183851 -0.604188 0.161341 
0.182176 -0.605025 0.161194 
0.183889 -0.605009 0.161104 
0.184747 -0.605844 0.161037 
0.0556113 -0.613784 0.161617 
0.0682152 -0.615443 0.161479 
0.0673631 -0.616304 0.161697 
0.0665266 -0.617978 0.161594 
0.0673866 -0.617103 0.161215 
0.036303 -0.618826 0.161442 
0.0665436 -0.618788 0.161235 
0.0354669 -0.619649 0.161227 
0.0656801 -0.61967 0.161695 
0.0354674 -0.620486 0.161176 
0.0648343 -0.620521 0.161804 
